-0.0587518 -1.20173 5.97593
-0.433319 -0.952692 6.13667
-0.0487002 -0.973812 5.99461
-0.249128 -0.966122 6.07744
1.48037 -0.0390899 3.02671
1.36774 -0.059881 2.85114
-0.593705 -0.95975 6.17569
-0.463785 -1.26594 6.1035
0.556202 -0.209986 4.23294
-0.112056 -1.28433 5.99032
-0.763086 -1.23734 6.16088
1.14547 -0.289614 4.3463
-0.428114 -0.372812 6.27316
0.00504114 -0.204894 4.57458
-1.29712 -0.563661 6.29214
1.37768 0.201417 4.05363
0.506361 -0.269938 4.30978
-0.776898 -1.18094 6.17082
-0.759667 -0.362653 6.40502
1.56304 -0.251192 3.22683
1.61952 -0.051292 3.35083
0.792899 -1.46665 5.47539
-0.0235807 -0.47544 4.96067
0.0399643 -0.712513 5.97577
-0.934311 -1.63859 6.10696
0.20622 -1.35932 5.83723
-0.632928 -0.546653 6.25823
0.53324 -0.165164 4.27987
-0.362923 -0.524381 6.15514
-1.19864 -0.564405 6.32219
-0.307812 -0.826816 6.12084
1.31877 0.182976 4.17552
-0.308628 -1.10998 6.08263
1.05912 -1.15501 5.2308
0.380517 -1.37548 5.74929
1.25089 -1.17675 5.02119
1.19389 -1.35212 5.08903
-1.71369 -0.550374 6.26561
1.66247 -0.0393359 3.43036
0.135547 -1.06895 5.89784
-0.00260356 -0.0659078 4.59914
0.391957 -1.47891 5.73374
1.42782 0.225455 3.88169
1.34089 -0.15133 4.60443
-1.09206 -1.29269 6.17126
0.23454 -1.18907 5.83462
-0.3165 -1.29001 6.05739
-1.70798 -0.821284 6.19918
-1.09 -1.19668 6.18725
1.38544 -0.143469 4.44234
1.23842 0.108609 4.4231
-1.21513 -1.57929 6.11963
1.03127 0.0362414 4.18274
1.34413 0.150343 4.15317
1.37273 -0.130116 3.5841
0.391469 -1.61344 5.73945
1.55477 -1.27936 4.63197
-0.625825 -1.09026 6.15803
-0.0261978 -0.832835 6.00092
1.44235 -0.219596 4.22297
-1.23908 -1.03223 6.21083
1.21576 0.0498092 4.48239
-1.33601 -1.71178 6.07254
-0.381623 -0.71137 6.12487
1.44673 -0.378284 4.64334
0.793407 -1.31141 5.46787
-0.473741 -1.37341 6.09188
0.0591834 -1.11512 5.93302
0.823129 -1.39255 5.44246
-0.623271 -1.69713 6.07556
1.41514 0.224328 3.58307
0.205453 -0.74298 5.8812
1.2164 -0.0120491 4.28597
0.748702 -1.22456 5.49386
0.479467 -1.36776 5.69245
-1.22348 -1.47751 6.13092
1.09899 -1.23623 5.18769
-1.67149 -1.65107 6.0129
-0.564861 -0.820051 6.18422
0.981483 -1.36051 5.30093
1.38064 -0.0891271 3.59791
1.31899 -1.32184 4.9424
1.55213 -1.11923 4.62191
-0.165583 -1.31614 6.00627
-1.68853 -1.07415 6.14379
-1.68586 -0.730411 6.22227
1.22814 -0.19604 4.30903
0.0772729 -1.17353 5.91859
0.305798 -0.75799 5.84516
1.15957 -1.20136 5.12371
1.10337 -1.29386 5.17904
-0.445533 -0.589337 6.15978
1.54142 -0.0515457 3.17589
-0.228076 -0.721602 6.52317
0.697598 -1.21913 5.53729
0.571928 -1.37131 5.62074
-0.933902 -1.52804 6.12919
-1.34041 -1.11655 6.18861
-0.706 -0.479696 6.33487
1.44521 -0.195865 2.98494
-0.759934 -1.30908 6.14633
0.457561 -0.790133 5.74495
-1.0666 -0.912365 6.23792
0.140321 -0.788628 5.91979
-1.46315 -1.42075 6.10645
0.99543 -1.16892 5.29218
-0.47115 -1.48023 6.07622
1.63936 -0.0950529 3.41319
0.116638 -0.917179 5.92514
-0.625135 -1.57943 6.08803
0.553357 -0.0199874 4.36273
1.25173 -1.33964 5.02545
0.0153765 -0.312729 4.67676
1.45976 0.0887516 3.45454
0.291496 -1.37525 5.79278
1.13823 -1.25024 5.14747
0.537002 -0.730787 5.65773
-0.388519 -0.463622 6.1203
1.20619 -0.886196 5.08479
1.44155 -0.19429 3.1563
0.827302 -0.635794 5.35669
-0.272795 -1.05162 6.07749
0.446279 -1.47808 5.71019
-1.57093 -0.765688 6.23704
-0.13387 -1.39562 5.98218
1.41854 -0.0657343 4.11865
-0.411387 -0.655976 6.13294
-0.287014 -1.61917 6.00903
-1.08627 -1.6261 6.12168
-0.527637 -0.473046 6.24161
-0.945688 -1.06019 6.20742
0.818447 -1.22827 5.44485
-1.35649 -1.25174 6.16172
-1.73032 -0.764444 6.2109
-2.08466 0.19659 8.2469
-0.118425 -0.405521 5.2585
0.122383 -0.849646 5.92713
-0.659798 -0.41236 6.32245
1.51255 -1.14587 4.67769
0.454027 -1.1825 5.69914
0.116888 -0.983305 5.91939
0.758134 -1.38098 5.496
1.55412 -0.273963 3.2335
-1.23732 -1.6606 6.09579
1.24386 -0.160447 4.46408
-0.964706 -1.71501 6.08868
0.034186 -0.945777 5.9623
-1.46148 -1.51946 6.08334
-1.1003 -1.39289 6.15642
-0.267878 -0.279908 5.46866
0.55317 -0.126789 4.35278
-0.169753 -1.48826 5.99031
0.929813 -1.36259 5.34677
1.2101 -1.19769 5.06993
0.301589 -0.884148 5.82697
0.125393 -0.170652 4.59965
0.594074 -0.800215 5.63302
-0.304692 -0.929208 6.10066
-1.70996 -1.12876 6.12185
-1.00585 -1.00848 6.21212
-0.558875 -0.578127 6.22002
1.59145 -1.20541 4.56755
1.36769 -0.745542 4.88946
-0.0119398 -1.07626 5.96761
0.130745 -0.737575 5.9149
0.193611 -1.23749 5.85816
1.57117 -1.14963 4.59058
-0.682269 -1.67632 6.08096
-1.3519 -1.34992 6.14558
-1.84923 -0.750955 6.19131
0.26969 -0.707071 5.83992
1.47531 -1.15079 4.73151
0.448369 -1.02947 5.71438
1.62571 -1.06922 4.45599
-1.51172 -1.58638 6.07221
-0.83008 -1.22727 6.16937
0.414314 -0.884811 5.7556
1.21368 -0.0897189 3.97739
-0.799259 -1.44403 6.13469
1.53383 -0.399837 4.59314
-0.512823 -1.21061 6.11835
-0.850962 -0.482073 6.44068
1.3692 -0.0705967 4.53595
-1.76528 0.202699 8.20587
-0.405341 -0.376631 5.93175
1.3377 -1.20663 4.91852
1.42312 -0.131584 4.26564
-0.178322 -1.21745 6.01951
1.40608 -1.31052 4.83616
1.42116 -0.125271 3.35875
0.794029 -0.902163 5.48674
-0.403358 -1.26896 6.09027
0.693131 -0.780378 5.56676
-0.643651 -0.909315 6.19048
0.343174 -0.14971 4.55508
1.50211 0.148387 3.09455
-0.933072 -0.880805 6.23287
0.459295 -0.637092 5.24943
0.529512 -1.14742 5.65823
1.35994 -0.796091 4.89593
1.43937 -0.693424 4.78444
-0.0459242 -1.27169 5.96196
1.37178 -0.0893058 2.83605
-1.67124 -1.51278 6.07164
1.72417 -0.982104 4.04731
1.60258 -1.11101 4.5209
-1.2014 -0.9024 6.24593
0.59745 -0.675953 5.59242
1.54029 -0.821973 4.63233
-0.784738 -0.941855 6.20984
0.702099 -1.40136 5.53636
1.31792 -0.0544208 2.73925
-0.456763 -1.57614 6.05886
0.863324 -0.796377 5.43692
1.57018 -0.422296 3.25694
1.03192 -1.31701 5.24796
1.40118 0.0269395 3.31662
-1.50948 -0.954563 6.19696
-0.19232 -0.752021 6.05916
1.51494 -1.28275 4.68825
0.877044 -1.3699 5.39441
0.763598 -1.27382 5.48486
0.296231 -1.58905 5.78783
1.04093 -1.24493 5.24197
-0.855971 -1.16591 6.18017
-0.10243 -1.6024 5.95228
1.47346 -1.2933 4.74187
0.0803399 -0.809491 5.95587
-1.44461 -0.559736 6.2802
0.505524 -0.230102 4.35701
1.32222 -0.0947844 4.61176
-1.14614 -1.12915 6.19759
-1.94278 -0.557349 6.21631
-1.07721 -1.00556 6.22924
-0.278027 -0.556115 5.82024
1.45685 0.209435 3.38679
-0.305825 -1.22809 6.06363
0.935429 -0.790145 5.36279
0.362803 -0.851138 5.801
1.56722 -0.670056 3.87309
-0.0450033 -1.64794 5.94257
-1.5322 -1.50248 6.08221
0.594944 -0.744684 5.62578
0.701771 -1.45831 5.53946
1.37155 -0.690054 4.88643
-0.609236 -0.469987 6.28495
1.10339 -1.18249 5.18389
0.963903 -0.717128 5.34104
1.11671 -1.34515 5.16823
0.302034 -0.988398 5.81661
-0.164733 -0.810762 6.05864
-1.61953 -1.11088 6.14998
-0.406909 -1.35817 6.07647
0.302233 -1.46583 5.78655
0.701177 -0.659592 5.51443
1.6032 -0.774172 4.53759
0.169053 -0.885002 5.90145
0.651936 -0.0217738 4.07271
0.954116 -0.158334 3.62569
-0.316454 -0.65156 6.03966
-1.87299 -0.973082 6.11612
1.39792 -0.0962612 4.41931
-2.50061 0.196099 8.23366
-0.191025 -1.62751 5.97835
1.45769 -0.739533 4.76629
-2.38798 0.204059 8.23691
0.551835 -0.653876 5.46311
-0.426913 -0.523842 6.13338
-0.533861 -1.58529 6.0691
0.813665 -0.263868 3.73827
-1.86235 0.171944 8.20828
0.364061 -0.21595 4.51595
-0.303836 -0.99719 6.09294
0.555778 -1.21704 5.64264
1.54692 -0.350511 4.19417
-1.68256 -0.879825 6.19404
0.511841 -0.493056 4.46397
-1.32487 -1.17279 6.17676
-1.40469 -1.0929 6.18494
-1.39663 -1.43465 6.11842
1.40041 0.225106 3.28993
1.09663 -0.273085 4.16384
-1.66536 -1.17051 6.12797
-2.18954 -0.486327 7.48555
1.41121 -0.396501 4.71474
1.16001 -0.881054 5.13678
-1.40033 -1.61344 6.08964
1.06831 -1.36463 5.22499
1.57612 -0.628888 3.67336
0.0106648 -1.0198 5.9674
-0.78373 -1.52968 6.11718
0.842978 -1.31636 5.42365
1.43794 -0.0168234 2.93296
-1.29802 -0.832854 6.24949
1.59333 -0.278806 3.29293
-0.854487 -1.53637 6.11882
1.36067 -1.25061 4.88915
-1.55133 -0.0244833 8.09435
-0.231615 -1.69023 5.98234
0.936146 -0.608259 5.25253
-0.0252879 -0.73945 6.00159
1.3188 0.12792 4.25035
1.54143 -0.594904 3.73213
0.513122 -0.128405 4.36796
1.69007 -0.7011 3.69605
0.624777 -1.38269 5.58318
1.37631 -0.29148 4.60997
0.548062 -0.536146 4.77591
-0.36449 -1.68605 6.02407
-1.21197 -0.799441 6.26372
-0.85403 -1.73146 6.08922
0.677304 -0.859523 5.57639
1.447 -0.634719 4.78061
1.18489 -1.27602 5.09069
0.791157 -0.684218 5.4532
-0.832113 -1.33358 6.15128
-1.14168 -1.48355 6.13433
1.53626 0.201816 3.51843
-0.663797 -1.01769 6.17281
-1.82724 -1.54831 5.98258
-2.19001 0.204883 8.24829
1.37541 -0.644661 4.8831
-1.00988 -0.597403 6.29976
-1.6839 -1.38058 6.07913
1.45429 -0.797214 4.7711
1.61679 -0.578512 3.3453
-0.926683 -1.38693 6.15015
-1.30556 -1.63054 6.08959
1.75541 -1.02697 4.32864
1.40987 0.205608 3.96527
1.56449 -0.321202 3.68501
-0.0860049 -0.602126 5.37307
-0.238186 -0.862584 6.08499
-1.14744 -1.67492 6.10834
-0.411735 -1.15568 6.1073
0.863131 -0.857551 5.4352
-0.887264 -1.59213 6.1086
-0.614613 -1.27023 6.1286
-0.617726 -1.43061 6.11097
-0.558886 -0.402762 6.27674
1.247 -1.25347 5.02492
1.51361 -1.20982 4.68228
0.759237 -0.838934 5.51222
1.41709 -0.00422505 4.10583
0.92507 -1.29793 5.35144
1.36271 -0.437498 4.79502
-2.29612 0.196803 8.24986
-1.54602 -0.864381 6.21629
-0.747519 -1.12889 6.17335
1.61446 -1.26597 4.53782
-1.60997 -1.68662 6.01966
0.847633 -1.45199 5.42142
-1.44049 -0.876805 6.22454
-0.469799 -0.331054 6.03886
-1.83992 -1.39327 6.02816
0.00645738 -0.152087 4.57138
-0.0496671 -1.3972 5.94521
1.54993 -1.21363 4.62904
-0.575317 -1.64935 6.07081
1.32955 -1.15814 4.92412
0.013509 -1.30956 5.9337
1.69224 -0.398062 3.50343
1.53325 -0.73223 4.64032
1.45441 -0.851513 4.77073
1.60421 -0.838702 4.54203
1.63415 -0.502045 4.04215
0.977605 -0.835723 5.33573
-0.356622 -1.43351 6.05226
-1.8545 -0.818743 6.1735
-1.89104 -0.90609 6.1315
0.397454 -1.25576 5.74379
-0.0860325 -1.51319 5.95767
-1.82851 -0.87697 6.16739
0.266574 -0.185459 4.5983
-1.59996 -1.57163 6.05642
0.0771111 -1.04649 5.92683
0.677804 -0.501173 5.05499
1.38295 0.0648044 2.83406
0.262406 -0.137167 4.6021
0.49182 -0.992675 5.69143
-0.398759 -1.48676 6.05973
-2.30896 0.117599 8.2177
-1.37984 -0.0158794 8.01737
1.3859 -1.19829 4.84896
1.588 -0.487623 3.30123
-0.929629 -0.563808 6.33399
1.37167 -0.571724 4.88787
1.50926 -0.0835644 3.10727
1.55972 -0.499236 4.61067
-1.0388 -1.69547 6.10043
-1.27237 -1.53828 6.11578
-2.27321 -0.517233 6.90864
1.10419 -1.46309 5.19569
1.53257 -0.288077 3.69063
0.22506 -0.398212 4.26295
0.944126 -1.17044 5.34302
1.59121 -0.459354 3.82886
1.64148 -0.559418 3.4517
-1.83205 -1.49196 6.0074
1.34428 0.187776 2.74956
0.789564 -0.769111 5.49192
-1.99533 0.196534 8.24489
-1.00431 -1.37171 6.1537
-0.353716 -1.6025 6.03058
0.263093 -1.10452 5.82422
0.874469 -0.682141 5.34854
1.4014 -0.177162 4.38721
0.972347 -0.257987 3.90208
0.935307 -0.575927 4.57394
0.604711 -0.992866 5.60814
-1.60125 -0.891742 6.20204
-0.69853 -1.5604 6.10297
0.8581 -0.924307 5.43523
0.567727 -0.902728 5.63959
0.930344 -0.915818 5.35993
0.677096 -0.917613 5.5752
0.119007 -0.218908 4.58632
1.34469 -0.850467 4.91237
-0.255709 -1.2962 6.03702
0.930507 -0.85032 5.36236
1.48638 -0.346996 3.16036
-1.17395 -1.53338 6.12274
-1.45482 -1.59342 6.07822
0.014253 -1.6553 5.91493
0.585109 0.506566 6.15039
1.21899 -1.30802 5.06482
0.45554 -1.09389 5.68741
1.60211 -0.727499 4.53183
-0.115458 -0.855057 6.03264
-0.556645 -0.876889 6.17178
-2.17345 0.11773 8.22207
0.915577 -1.22361 5.36017
1.55041 -0.547598 4.19066
0.581839 -0.273252 4.31706
0.210921 -0.946319 5.86632
-1.07801 -1.47337 6.13922
1.66065 -0.487158 4.1873
0.00455277 -0.260823 4.57343
-1.62421 -1.05346 6.16329
0.216033 -0.13859 4.60676
0.573391 -1.05956 5.61928
0.387634 -1.03619 5.75124
1.31446 -1.25118 4.94362
0.153788 -1.18682 5.87674
0.981461 -1.29051 5.30354
0.850529 -0.232716 3.68146
-1.05749 -1.09465 6.20185
-0.727038 -1.41115 6.12874
1.12253 -0.0683576 4.23757
0.873307 -0.738835 5.42579
-1.00204 -1.59559 6.11835
-0.694133 -1.26209 6.14332
0.640348 -1.26024 5.58098
-1.60127 -1.39565 6.09479
0.230873 -0.269993 4.55806
0.555888 -1.28956 5.63638
-0.422193 -1.21322 6.10019
1.58453 -0.453889 4.06286
1.47607 -1.22332 4.73406
-0.27256 -1.46008 6.02857
0.985557 -0.575225 5.63608
-1.87349 0.085739 8.18994
1.5884 -0.694987 3.30494
-1.05911 -0.211573 7.80872
0.643892 -0.488932 4.74427
-1.86282 -0.527762 6.24332
-1.47208 -1.02975 6.19062
0.331359 -1.10207 5.78345
1.56943 -0.551213 3.56635
-0.522402 -1.1039 6.139
-1.21393 -1.19633 6.18321
-0.0264564 -1.47311 5.93457
1.00906 -1.21279 5.27166
1.241 -0.259715 4.53274
0.668167 -0.738155 5.57441
1.22253 -0.767844 5.06319
0.48439 -0.688068 5.61852
-1.36232 -0.762334 6.26287
0.192254 -0.360235 4.31691
-0.89523 -1.23911 6.16982
1.52549 -0.637764 3.1602
-1.76994 0.077831 8.1891
1.57455 -0.340904 3.92466
1.37178 -0.511272 4.88895
-1.98565 0.0939525 8.21309
1.16438 -0.774124 5.13331
-1.21324 -1.33822 6.15829
-1.44094 -1.15964 6.16707
-0.0707923 -0.698768 6.01052
1.59622 -0.757572 4.03112
1.49789 -0.641004 4.70276
-0.0318494 -0.912017 5.99691
0.153682 -1.13267 5.88069
1.73095 -1.01726 4.22092
-1.59076 -0.441291 6.66861
0.535436 -0.954839 5.66038
-1.54789 -1.00545 6.18513
-1.75732 -1.56377 6.02247
1.44739 -0.581756 4.78435
1.60234 -0.474716 4.14998
-1.5584 -0.560557 6.27461
1.41881 -0.277967 4.53831
-1.53188 -1.40791 6.09987
-0.213047 -1.36504 6.01735
1.21026 -0.818797 5.07855
0.953405 -1.25085 5.32735
0.682034 -1.34143 5.54402
1.28358 -1.138 4.99309
-1.39852 -1.68799 6.06689
1.57177 -0.578034 3.90063
-0.466896 -0.694842 6.17067
1.48309 -0.407186 4.68184
0.31418 -1.25981 5.78607
1.48393 -0.60807 3.07812
-1.77476 -1.38754 6.05497
-1.01064 -1.22434 6.17982
-0.487582 -0.638915 6.18756
-0.476325 -0.879102 6.15162
0.733068 -1.33797 5.51028
-1.88931 -0.269569 8.06077
-0.997261 -0.655745 6.25766
-0.999563 -1.51176 6.13259
0.234691 -1.03652 5.84243
-0.966323 -0.950755 6.22162
0.336703 -0.366791 4.38832
0.157873 -0.336559 4.31487
0.609195 -1.22316 5.6004
0.741004 -0.688905 5.49715
1.31898 -0.904849 4.95814
1.42025 0.0658853 3.35067
1.40767 -0.7321 4.83171
1.49093 -0.70877 4.70951
-0.415821 -0.853951 6.14099
1.77453 -1.30788 5.08211
0.671745 -0.981154 5.57672
1.4253 0.174246 2.97339
1.66832 -0.32424 3.47547
-0.17533 -0.891824 6.05081
1.5836 -0.658682 3.69683
-2.84568 0.040825 8.11085
-0.173149 -1.11058 6.02738
0.857997 -0.974606 5.4316
-0.498437 -0.778004 6.17669
-2.17898 -0.084994 8.16426
0.609258 -1.31172 5.59415
-0.112749 -1.16799 6.00034
-0.219748 -0.160678 5.18816
-2.61434 -0.462573 7.95327
-0.845778 -1.06835 6.19034
0.40025 -1.09607 5.72522
-1.45487 -1.29415 6.136
0.675685 0.0172905 4.09484
-1.27733 -1.32674 6.1547
-1.3365 -1.41571 6.13349
1.4335 -1.22371 4.78865
1.44745 -0.532556 4.78504
-1.14156 -1.04574 6.22272
1.53993 -0.549752 4.6351
1.86307 -1.12073 4.32467
-0.10746 -1.0109 6.01048
-1.54892 -1.14022 6.15264
1.66881 -0.812083 3.4664
1.43674 -1.15951 4.784
-1.30817 -1.04273 6.2022
-1.60429 -0.998255 6.17585
0.260823 -0.37698 4.3481
-1.72868 -1.67926 5.9938
-1.35511 -0.884184 6.23798
-1.76184 -0.860988 6.18187
-0.029451 -1.15015 5.96925
-1.70459 -1.31155 6.08864
-0.291398 -1.36639 6.04214
0.410036 -0.451909 4.33195
-1.28936 -0.896053 6.23939
-0.193341 -1.43411 5.99928
1.43844 -1.32432 4.79044
1.50831 -0.504226 4.69239
-2.55874 0.0306559 8.19088
-0.687264 -1.12151 6.16776
1.18065 -1.13956 5.09926
0.986649 -0.893414 5.31181
-1.76775 -1.04095 6.14658
-1.03168 -0.824974 6.24532
0.349343 -0.416202 4.45303
-0.747288 -1.74037 6.0823
1.67161 -1.0207 4.38233
1.3929 -1.14634 4.83763
0.733346 -0.926659 5.53717
-0.120864 -0.738995 6.03824
-1.704 -1.21908 6.10458
-0.221329 -1.14778 6.0418
-1.4105 -1.00276 6.20392
1.16076 -1.41756 5.13982
1.49429 0.0457494 3.53961
1.35082 -0.0331965 2.79208
0.435196 -1.40644 5.7219
-1.43211 -0.161238 8.00329
-1.73188 -0.000147685 8.16616
-0.391134 -0.783969 6.13754
1.16835 -0.0158189 4.21554
-1.18843 -0.147523 7.95604
0.746321 -0.0192294 3.44612
0.801501 -0.498408 4.9437
-2.73426 0.0336049 8.20095
-0.367959 -0.904422 6.1299
1.29875 -1.20892 4.96402
0.814042 -0.828268 5.47754
1.53697 -0.40259 4.15787
1.56298 -0.534207 3.65459
1.44673 -0.472152 4.77916
0.930253 -0.967016 5.35927
-1.58035 -0.413423 7.18865
1.56315 -0.585765 3.68635
1.54758 -0.945259 4.62481
1.52043 -0.239103 3.14741
-1.55181 -1.27502 6.12486
0.696502 -1.57323 5.54499
1.48507 -1.10368 4.71427
-1.55792 -0.534247 6.39387
1.56089 -0.71321 3.24044
0.942459 -0.4269 4.13708
0.434087 0.0321232 4.4932
0.862565 -1.25961 5.40532
-0.806962 -0.291396 6.69257
1.25239 -1.40611 5.033
1.68501 -0.076776 3.47814
0.560383 0.614301 4.87047
1.64254 -1.27131 4.50078
0.217585 -1.28787 5.83613
0.496983 -1.21939 5.67597
0.872789 -0.497134 4.81099
0.712714 -1.27893 5.52737
-1.3034 -1.48136 6.12176
-2.08375 0.0940062 8.21783
-0.471429 -1.15192 6.11697
1.06387 -0.977485 5.23634
0.409015 -0.97644 5.75014
-1.91047 -0.429672 7.25783
-0.148845 -0.551874 5.43939
1.47863 -0.554315 4.74111
-0.626013 -0.827588 6.19446
0.427959 -0.178433 4.45827
1.01881 -0.932637 5.28496
1.73455 0.398641 4.37095
-0.602815 -1.02706 6.16239
0.715347 0.0941107 4.36409
-2.36793 -0.384565 7.55667
0.89655 -0.373809 4.10418
0.290913 -1.64214 5.78516
0.355234 -0.697022 5.73409
0.212415 -0.182856 4.60043
-1.5381 -1.70114 6.03106
1.23893 -0.982067 5.04444
0.112687 -1.24027 5.8961
-1.22875 -1.25318 6.17204
-1.61188 -1.23024 6.12696
1.397 -0.932654 4.845
1.62901 -0.745533 3.38145
-1.84001 -1.12973 6.09044
-2.40552 0.109454 8.2158
1.76775 -1.13386 4.13571
-1.44508 -0.809439 6.23932
0.957927 -0.253319 4.18624
1.28683 -0.951682 4.98503
1.53979 -1.17184 4.64361
-0.585718 -0.26514 6.25149
0.675615 0.0637804 4.15602
1.60313 -0.895912 4.53345
-1.14409 -1.74097 6.09587
1.48867 -0.261992 3.57575
0.230707 -0.313737 4.23584
1.21693 1.25818 7.94528
0.125943 -1.36825 5.87263
1.5379 -0.735087 3.6223
1.52654 -0.235093 3.59235
-0.536433 -0.733832 6.19175
-2.04309 -0.286806 7.60625
1.43318 0.019801 2.98042
1.52295 -0.335693 4.43814
0.167661 -0.179752 4.61865
-1.78479 -0.979933 6.16006
-1.20554 1.25934 6.81253
1.57574 -0.53516 4.58795
1.23809 -0.35496 4.71567
-1.77648 -0.40975 7.50439
1.57391 -0.441063 4.57671
1.45458 -0.909071 4.77082
-1.18578 -0.243262 7.96792
1.48886 -0.340039 4.48958
-1.78533 -1.46036 6.02332
-0.775197 -0.183681 6.99429
-2.16519 0.0153709 8.1956
1.60001 -0.392873 4.12353
-1.79644 -1.26775 6.08116
-1.49915 -0.496793 7.58513
1.60454 -0.320587 3.52001
1.10221 -0.277043 4.32579
-1.02282 -0.517171 6.49687
-1.81419 -1.67865 5.94936
0.787703 0.0125815 3.79749
0.504934 -0.0327205 4.41895
0.788746 -1.031 5.48486
1.50109 -0.484048 3.11512
0.351763 -0.952664 5.79953
-1.61202 -1.31333 6.10963
1.55605 -0.611468 4.18115
1.26236 -0.872229 5.00557
1.12059 0.0304708 4.18608
-1.56544 -0.667987 6.2572
0.0688837 -0.207496 4.58794
1.36842 -1.3133 4.87804
1.33308 -0.197874 4.6064
1.31121 -0.312162 4.71904
1.42676 -0.0765054 2.94768
-1.32867 -0.711892 6.27242
1.22422 -0.090301 4.39866
0.312678 -0.19041 4.56514
1.54856 -0.486395 4.18039
0.25929 -0.400389 4.35404
-0.625438 -1.33322 6.12263
-2.51522 0.109144 8.20673
1.54353 -0.49438 3.19845
1.70252 -0.363796 3.53548
1.40084 -0.791971 4.84498
0.956685 -0.370426 4.11122
1.18005 -0.197317 4.30287
0.89587 -0.314885 3.84378
0.813598 -1.10466 5.45957
-1.36557 -0.61304 6.27785
1.53265 -0.636302 4.6379
-1.89196 -1.06154 6.08885
1.14691 -0.930508 5.14511
0.155135 -0.402917 4.36525
1.57749 -0.0956064 3.28157
1.12182 -0.131445 3.95926
0.823628 -1.16687 5.4382
1.1025 -0.430929 4.58006
1.65853 -0.771569 3.44423
-0.971766 -0.316265 6.95496
-1.07673 0.0677831 7.97845
1.4543 0.215253 3.59101
1.61844 -0.365364 3.7725
1.19825 -0.974749 5.10065
1.05519 -0.259801 4.09383
1.49798 -1.32736 4.71015
1.4897 -0.653867 3.08223
-2.15667 0.352115 8.35829
0.625681 -0.84925 5.60639
0.4458 -0.216723 4.40517
-0.998392 -0.893244 6.23149
1.57258 -0.703176 4.58957
-1.43359 -1.72725 6.04898
-0.0574726 -1.64609 5.99593
1.48211 -0.958271 4.72909
0.226481 -0.43795 4.27365
0.854005 -0.30815 3.30454
0.635218 -1.17436 5.58976
-2.55672 0.283915 8.25464
1.41158 -0.659579 4.83048
1.25124 -0.815787 5.03353
-1.52079 -0.79817 6.23193
1.36412 -1.05449 4.88848
0.126158 0.131155 4.5527
1.51611 -0.448567 4.66234
0.273925 -1.30934 5.81068
-0.148415 -1.698 5.95589
-0.932237 -0.628706 6.28053
0.740444 0.020374 4.01482
1.36801 -0.179505 4.49177
0.440963 -0.514648 4.74293
1.695 -1.0968 4.42721
-0.867172 -0.93038 6.20932
-1.70399 -1.00374 6.16811
